-0.231091 -0.0323027 0.681
-0.229933 -0.0323995 0.683
-0.228431 -0.032449 0.684
-0.227254 -0.0325459 0.686
-0.225081 -0.0325006 0.685
-0.223239 -0.0325027 0.685
-0.221721 -0.0325523 0.686
-0.220517 -0.0326494 0.688
-0.219303 -0.0327466 0.69
-0.217448 -0.0327488 0.69
-0.215905 -0.0327986 0.691
-0.214666 -0.0328958 0.693
-0.213416 -0.0329931 0.695
-0.211851 -0.0330429 0.696
-0.210583 -0.0331403 0.698
-0.208705 -0.0331427 0.698
-0.206235 -0.0330502 0.696
-0.204069 -0.0330052 0.695
-0.20249 -0.0330551 0.696
-0.200905 -0.0331051 0.697
-0.199886 -0.0332502 0.7
-0.198568 -0.0333477 0.702
-0.197238 -0.0334453 0.704
-0.195898 -0.0335429 0.706
-0.194547 -0.0336405 0.708
-0.193729 -0.0338332 0.712
-0.19262 -0.0339784 0.715
-0.19096 -0.0340286 0.716
-0.188768 -0.0339838 0.715
-0.187364 -0.0340815 0.717
-0.185691 -0.0341318 0.718
-0.184268 -0.0342296 0.72
-0.182834 -0.0343274 0.722
-0.181639 -0.0344728 0.725
-0.180676 -0.0346657 0.729
-0.179936 -0.0349063 0.734
-0.179168 -0.0351469 0.739
-0.177894 -0.0352924 0.742
-0.175892 -0.0352952 0.742
-0.174125 -0.0353456 0.743
-0.172815 -0.0354911 0.746
-0.171717 -0.0356843 0.75
-0.171276 -0.0360202 0.757
-0.17102 -0.0364037 0.765
-0.1705 -0.0367397 0.772
-0.16907 -0.0368854 0.775
-0.167622 -0.0370311 0.778
-0.164669 -0.0368436 0.774
-0.161317 -0.0365608 0.768
-0.159034 -0.0365161 0.767
-0.156756 -0.0364713 0.766
-0.154685 -0.0364741 0.766
-0.152613 -0.0364769 0.766
-0.150738 -0.0365273 0.767
-0.148663 -0.03653 0.767
-0.145823 -0.0363423 0.763
-0.143004 -0.0361545 0.759
-0.140949 -0.0361571 0.759
-0.138528 -0.0360645 0.757
-0.136479 -0.0360672 0.757
-0.13354 -0.0358315 0.752
-0.131678 -0.0358818 0.753
-0.12981 -0.035932 0.754
-0.127936 -0.0359822 0.755
-0.126223 -0.03608 0.757
-0.124171 -0.0360826 0.757
-0.122119 -0.036085 0.757
-0.119907 -0.0360398 0.756
-0.118012 -0.0360899 0.757
-0.115652 -0.0359969 0.755
-0.113604 -0.0359993 0.755
-0.111407 -0.035954 0.754
-0.109651 -0.0360516 0.756
-0.107456 -0.0360062 0.755
-0.105546 -0.0360562 0.756
-0.103082 -0.0359153 0.753
-0.101305 -0.0360129 0.755
-0.0995168 -0.0361104 0.757
-0.0977175 -0.0362079 0.759
-0.0951508 -0.0360192 0.755
-0.0926055 -0.0358304 0.751
-0.0906847 -0.0358801 0.752
-0.0888759 -0.0359775 0.754
-0.0871711 -0.0361226 0.757
-0.0852248 -0.0361722 0.758
-0.083163 -0.0361741 0.758
-0.080994 -0.0361282 0.757
-0.0786215 -0.0359868 0.754
-0.0763667 -0.0358931 0.752
-0.0738259 -0.0356561 0.747
-0.0714082 -0.0354668 0.743
-0.069479 -0.0355161 0.744
-0.067544 -0.0355654 0.745
-0.0656034 -0.0356147 0.746
-0.0629753 -0.035282 0.739
-0.0599726 -0.0347105 0.727
-0.0575935 -0.0344731 0.722
-0.0560889 -0.0347609 0.728
-0.0545513 -0.0350487 0.734
-0.0521933 -0.0348112 0.729
-0.049518 -0.0343348 0.719
-0.0480215 -0.0346702 0.726
-0.0468672 -0.0352922 0.739
-0.0452776 -0.0356275 0.746
-0.0434758 -0.0358196 0.75
-0.0414863 -0.0358684 0.751
-0.0394912 -0.0359171 0.752
-0.0374406 -0.035918 0.752
-0.0351546 -0.0356801 0.747
-0.0329401 -0.0354898 0.743
-0.0308305 -0.035395 0.741
-0.0289649 -0.0355868 0.745
-0.0271497 -0.0358741 0.751
-0.0252683 -0.0361135 0.756
-0.023298 -0.0362574 0.759
-0.0212554 -0.0363057 0.76
-0.0191567 -0.0362585 0.759
-0.0170409 -0.0361633 0.757
-0.0149558 -0.036116 0.756
-0.0127737 -0.0357819 0.749
-0.0106154 -0.0354 0.741
-0.00852391 -0.0351136 0.735
-0.00650949 -0.035066 0.734
-0.00448209 -0.034875 0.73
-0.00249014 -0.0348751 0.73
-0.000496809 -0.0347796 0.728
0.00148356 -0.0346362 0.725
0.00345232 -0.0345406 0.723
0.00542517 -0.0345405 0.723
0.00737752 -0.0344448 0.721
0.00926709 -0.034158 0.715
0.0111866 -0.0340622 0.713
0.0131689 -0.0341574 0.715
0.0151409 -0.0342049 0.716
0.0171182 -0.0342523 0.717
0.0191808 -0.0344429 0.721
0.0211478 -0.0344424 0.721
0.0230505 -0.0343464 0.719
0.0249075 -0.0342025 0.716
0.0271232 -0.0345362 0.723
0.0291355 -0.0345833 0.724
0.031282 -0.0347737 0.728
0.0331761 -0.0346774 0.726
0.0352528 -0.0347721 0.728
0.0370333 -0.0345802 0.724
0.0389535 -0.0345315 0.723
0.0406984 -0.0343396 0.719
0.0424805 -0.0341953 0.716
0.0444944 -0.034242 0.717
0.0467079 -0.034432 0.721
0.0487405 -0.0344786 0.722
0.0503569 -0.0342387 0.717
0.0520918 -0.0340943 0.714
0.0541129 -0.0341408 0.715
0.0563745 -0.0343305 0.719
0.058252 -0.0342814 0.718
0.0598722 -0.0340891 0.714
0.0616436 -0.0339922 0.712
0.0634038 -0.0338953 0.71
0.0655211 -0.0339893 0.712
0.0677437 -0.034131 0.715
0.0698849 -0.0342249 0.717
0.071636 -0.0341279 0.715
0.0734788 -0.0340785 0.714
0.0754216 -0.0340768 0.714
0.0776892 -0.0342183 0.717
0.0797506 -0.0342643 0.718
0.0821586 -0.0344534 0.722
0.084355 -0.034547 0.724
0.087039 -0.0348314 0.73
0.0896332 -0.035068 0.735
0.0913818 -0.0349706 0.733
0.0928643 -0.0347778 0.729
0.0947151 -0.0347281 0.728
0.097357 -0.0349645 0.733
0.0992126 -0.0349147 0.732
0.101062 -0.0348649 0.731
0.101497 -0.0343381 0.72
0.103164 -0.0342406 0.718
0.105113 -0.0342384 0.718
0.108702 -0.0347607 0.729
0.111591 -0.0350445 0.735
0.113431 -0.0349945 0.734
0.116365 -0.0352782 0.74
0.119652 -0.0356572 0.748
0.122331 -0.0358455 0.752
0.123708 -0.0356523 0.748
0.124727 -0.0353639 0.742
0.126055 -0.0351708 0.738
0.127534 -0.0350253 0.735
0.128997 -0.0348798 0.732
0.13098 -0.0348773 0.732
0.132599 -0.0347795 0.73
0.133838 -0.0345864 0.726
0.134868 -0.0343456 0.721
0.13644 -0.0342478 0.719
0.138001 -0.03415 0.717
0.13916 -0.0339569 0.713
0.1401 -0.0337162 0.708
0.141012 -0.0334755 0.703
0.141693 -0.0331873 0.697
0.142547 -0.0329467 0.692
0.143375 -0.0327061 0.687
0.144809 -0.0326083 0.685
0.146445 -0.0325582 0.684
0.148293 -0.0325556 0.684
0.149922 -0.0325055 0.683
0.151544 -0.0324553 0.682
0.152936 -0.0323576 0.68
0.154317 -0.0322598 0.678
0.156147 -0.0322573 0.678
0.157977 -0.0322547 0.678
0.15957 -0.0322046 0.677
0.160682 -0.0320593 0.674
0.161777 -0.0319141 0.671
0.163343 -0.031864 0.67
0.164656 -0.0317663 0.668
0.166208 -0.0317162 0.667
0.167755 -0.0316661 0.666
0.169804 -0.0317112 0.667
0.171345 -0.0316611 0.666
0.172879 -0.0316111 0.665
0.174408 -0.031561 0.664
0.176463 -0.0316061 0.665
0.177986 -0.031556 0.664
0.178691 -0.0313635 0.66
0.180468 -0.031361 0.66
0.182245 -0.0313586 0.66
0.184859 -0.0314987 0.663
0.186643 -0.0314963 0.663
0.188996 -0.0315889 0.665
0.19136 -0.0316814 0.667
0.194024 -0.0318215 0.67
0.196995 -0.0320091 0.674
0.199104 -0.0320542 0.675
0.200324 -0.0319569 0.673
0.202135 -0.0319545 0.673
0.204854 -0.0320946 0.676
0.206672 -0.0320923 0.676
0.208799 -0.0321375 0.677
0.210931 -0.0321826 0.678
0.213695 -0.0323228 0.681
0.214894 -0.0322256 0.679
0.2164 -0.032176 0.678
0.216936 -0.031984 0.674
0.217125 -0.0317446 0.669
-0.270032 -0.0337115 0.673
-0.273001 -0.0343135 0.685
-0.272738 -0.0345149 0.689
-0.270881 -0.0345159 0.689
-0.267073 -0.0342666 0.684
-0.263292 -0.0340173 0.679
-0.259923 -0.0338181 0.675
-0.258105 -0.0338194 0.675
-0.255908 -0.0337706 0.674
-0.254094 -0.033772 0.674
-0.25228 -0.0337734 0.674
-0.250466 -0.0337749 0.674
-0.248653 -0.0337764 0.674
-0.246473 -0.0337279 0.673
-0.245026 -0.0337797 0.674
-0.242852 -0.0337312 0.673
-0.241042 -0.033733 0.673
-0.239232 -0.0337347 0.673
-0.238128 -0.0338368 0.675
-0.236313 -0.0338387 0.675
-0.234845 -0.0338907 0.676
-0.233717 -0.0339929 0.678
-0.232236 -0.0340451 0.679
-0.230071 -0.033997 0.678
-0.227911 -0.0339489 0.677
-0.226759 -0.0340513 0.679
-0.225264 -0.0341036 0.68
-0.223436 -0.0341058 0.68
-0.221934 -0.0341582 0.681
-0.220426 -0.0342106 0.682
-0.219233 -0.0343132 0.684
-0.217712 -0.0343657 0.685
-0.216185 -0.0344183 0.686
-0.214965 -0.034521 0.688
-0.214044 -0.034674 0.691
-0.212493 -0.0347266 0.692
-0.21124 -0.0348295 0.694
-0.209977 -0.0349324 0.696
-0.208105 -0.0349349 0.696
-0.20564 -0.0348371 0.694
-0.203185 -0.0347393 0.692
-0.201905 -0.0348423 0.694
-0.200614 -0.0349454 0.696
-0.199027 -0.0349982 0.697
-0.197716 -0.0351013 0.699
-0.196395 -0.0352044 0.701
-0.19534 -0.0353578 0.704
-0.194544 -0.0355615 0.708
-0.193998 -0.0358154 0.713
-0.192617 -0.0359187 0.715
-0.190691 -0.0359215 0.715
-0.188237 -0.0358238 0.713
-0.186839 -0.0359272 0.715
-0.185429 -0.0360305 0.717
-0.184265 -0.0361841 0.72
-0.182831 -0.0362875 0.722
-0.181135 -0.0363407 0.723
-0.179681 -0.0364441 0.725
-0.178952 -0.0366984 0.73
-0.178196 -0.0369527 0.735
-0.177172 -0.0371567 0.739
-0.175653 -0.0372602 0.741
-0.173887 -0.0373135 0.742
-0.172348 -0.037417 0.744
-0.170798 -0.0375206 0.746
-0.170368 -0.0378757 0.753
-0.1699 -0.0382308 0.76
-0.169614 -0.0386363 0.768
-0.16863 -0.0388909 0.773
-0.167189 -0.0390449 0.776
-0.164454 -0.038897 0.773
-0.160894 -0.0385477 0.766
-0.158202 -0.0383997 0.763
-0.156139 -0.0384027 0.763
-0.154076 -0.0384057 0.763
-0.152411 -0.0385093 0.765
-0.150735 -0.0386129 0.767
-0.148272 -0.0385151 0.765
-0.144864 -0.0381656 0.758
-0.142436 -0.0380677 0.756
-0.140204 -0.0380202 0.755
-0.138343 -0.0380733 0.756
-0.136296 -0.0380761 0.756
-0.133715 -0.0379278 0.753
-0.132025 -0.0380312 0.755
-0.12998 -0.0380339 0.755
-0.128273 -0.0381374 0.757
-0.126387 -0.0381904 0.758
-0.124169 -0.0381427 0.757
-0.121955 -0.0380949 0.756
-0.119587 -0.0379967 0.754
-0.117854 -0.0381001 0.756
-0.115956 -0.038153 0.757
-0.113902 -0.0381555 0.757
-0.111257 -0.0379563 0.753
-0.109503 -0.0380596 0.755
-0.107596 -0.0381124 0.756
-0.105822 -0.0382156 0.758
-0.103353 -0.0380667 0.755
-0.101303 -0.038069 0.755
-0.0992517 -0.0380712 0.755
-0.0975866 -0.0382248 0.758
-0.0952747 -0.0381261 0.756
-0.0928501 -0.0379769 0.753
-0.0908032 -0.0379791 0.753
-0.088756 -0.0379811 0.753
-0.0870539 -0.0381345 0.756
-0.0851104 -0.0381869 0.757
-0.0829417 -0.0381385 0.756
-0.0808851 -0.0381404 0.756
-0.0784112 -0.0379405 0.752
-0.0761618 -0.0378414 0.75
-0.0736266 -0.0375909 0.745
-0.0714066 -0.0374917 0.743
-0.069384 -0.0374934 0.743
-0.0672705 -0.0374446 0.742
-0.0649863 -0.0372948 0.739
-0.0626329 -0.0370944 0.735
-0.0598062 -0.0365912 0.725
-0.0576719 -0.0364917 0.723
-0.0558564 -0.036594 0.725
-0.0541041 -0.0367468 0.728
-0.0516193 -0.0363948 0.721
-0.0496546 -0.036396 0.721
-0.0483511 -0.036902 0.731
-0.0469929 -0.037408 0.741
-0.0450945 -0.0375101 0.743
-0.0431849 -0.0376122 0.745
-0.0413196 -0.0377647 0.748
-0.0393327 -0.0378162 0.749
-0.0373899 -0.0379181 0.751
-0.0350126 -0.0375656 0.744
-0.033028 -0.0376169 0.745
-0.0307881 -0.0373653 0.74
-0.0288865 -0.0375175 0.743
-0.0268599 -0.0375182 0.743
-0.0250671 -0.0378723 0.75
-0.0231747 -0.0381254 0.755
-0.0211989 -0.0382775 0.758
-0.019131 -0.038278 0.758
-0.0169955 -0.0381269 0.755
-0.0148763 -0.0379758 0.752
-0.0126881 -0.0375722 0.744
-0.0105721 -0.0372695 0.738
-0.00850051 -0.0370172 0.733
-0.0064916 -0.0369669 0.732
-0.00445128 -0.0366135 0.725
-0.00247984 -0.0367146 0.727
-0.000494749 -0.0366137 0.725
0.00148557 -0.0366642 0.726
0.00343314 -0.0363106 0.719
0.00538001 -0.0362095 0.717
0.00727502 -0.0359063 0.711
0.0091891 -0.0358051 0.709
0.0110922 -0.0357038 0.707
0.0130581 -0.0358045 0.709
0.0149925 -0.0358042 0.709
0.0169746 -0.0359048 0.711
0.0189941 -0.0360558 0.714
0.0208833 -0.0359543 0.712
0.0228256 -0.0359538 0.712
0.024733 -0.0359027 0.711
0.0270475 -0.036407 0.721
0.0290945 -0.0365073 0.723
0.0311953 -0.036658 0.726
0.0331296 -0.0366067 0.725
0.0351551 -0.0366563 0.726
0.0371347 -0.0366554 0.726
0.0390604 -0.036604 0.725
0.0408106 -0.036401 0.721
0.0425982 -0.0362485 0.718
0.0444313 -0.0361465 0.716
0.0464476 -0.0361959 0.717
0.0483343 -0.0361442 0.716
0.0500045 -0.0359411 0.712
0.0516529 -0.0357379 0.708
0.0536576 -0.0357871 0.709
0.0558243 -0.0359372 0.712
0.0577638 -0.0359358 0.712
0.0595354 -0.0358334 0.71
0.0613824 -0.0357815 0.709
0.063581 -0.0359314 0.712
0.0657956 -0.0360812 0.715
0.0679316 -0.0361806 0.717
0.0695909 -0.0360275 0.714
0.0710332 -0.0357736 0.709
0.072551 -0.0355701 0.705
0.0745748 -0.0356188 0.706
0.0767122 -0.0357179 0.708
0.0791935 -0.0359683 0.713
0.0815878 -0.0361682 0.717
0.0842366 -0.0364689 0.723
0.0864409 -0.0365678 0.725
0.0888996 -0.0367675 0.729
0.0910057 -0.0368159 0.73
0.0927348 -0.036713 0.728
0.0941926 -0.0365091 0.724
0.0964252 -0.0366078 0.726
0.0978551 -0.0364039 0.722
0.0996777 -0.0363513 0.721
0.099803 -0.0356937 0.708
0.101869 -0.0357418 0.709
0.104525 -0.0359916 0.714
0.107507 -0.0363421 0.721
0.110374 -0.0366422 0.727
0.112038 -0.036539 0.725
0.116049 -0.0371917 0.738
0.11901 -0.0374915 0.744
0.121841 -0.0377409 0.749
0.123044 -0.0374864 0.744
0.124053 -0.0371815 0.738
0.12554 -0.0370277 0.735
0.127185 -0.0369243 0.733
0.128818 -0.036821 0.731
0.13044 -0.0367176 0.729
0.131688 -0.0365134 0.725
0.133098 -0.0363597 0.722
0.134491 -0.0362059 0.719
0.135868 -0.0360522 0.716
0.136844 -0.0357977 0.711
0.137791 -0.0355433 0.706
0.138712 -0.0352889 0.701
0.139605 -0.0350345 0.696
0.140471 -0.0347802 0.691
0.141309 -0.0345259 0.686
0.142329 -0.0343219 0.682
0.14396 -0.0342689 0.681
0.145801 -0.0342662 0.681
0.14764 -0.0342636 0.681
0.14948 -0.0342609 0.681
0.151097 -0.0342079 0.68
0.152708 -0.0341549 0.679
0.154086 -0.0340516 0.677
0.155914 -0.0340489 0.677
0.157508 -0.0339959 0.676
0.159332 -0.0339932 0.676
0.160202 -0.0337893 0.672
0.161051 -0.0335855 0.668
0.162121 -0.033432 0.665
0.163668 -0.0333791 0.664
0.165458 -0.0333764 0.664
0.166996 -0.0333235 0.663
0.169038 -0.0333711 0.664
0.170313 -0.033268 0.662
0.171837 -0.0332151 0.661
0.173355 -0.0331622 0.66
0.175133 -0.0331596 0.66
0.176911 -0.033157 0.66
0.178147 -0.0330539 0.658
0.179646 -0.0330011 0.657
0.181414 -0.0329986 0.657
0.183183 -0.032996 0.657
0.184952 -0.0329935 0.657
0.18672 -0.032991 0.657
0.188775 -0.0330387 0.658
0.191415 -0.0331868 0.661
0.194363 -0.0333851 0.665
0.197037 -0.0335332 0.668
0.198834 -0.0335307 0.668
0.201231 -0.0336287 0.67
0.203337 -0.0336764 0.671
0.205141 -0.033674 0.671
0.206946 -0.0336716 0.671
0.209062 -0.0337194 0.672
0.211497 -0.0338174 0.674
0.213942 -0.0339154 0.676
0.216717 -0.0340636 0.679
0.219187 -0.0341616 0.681
0.220693 -0.0341092 0.68
0.220231 -0.0337558 0.673
-0.27023 -0.0353208 0.669
-0.274044 -0.0360608 0.683
-0.274594 -0.0363786 0.689
-0.271945 -0.036274 0.687
-0.268914 -0.0361167 0.684
-0.264729 -0.0358011 0.678
-0.261739 -0.0356439 0.675
-0.259151 -0.0355395 0.673
-0.257722 -0.0355937 0.674
-0.255527 -0.0355422 0.673
-0.253716 -0.0355437 0.673
-0.251904 -0.0355452 0.673
-0.250093 -0.0355467 0.673
-0.248282 -0.0355484 0.673
-0.246105 -0.0354972 0.672
-0.244297 -0.0354989 0.672
-0.241768 -0.035395 0.67
-0.240324 -0.0354497 0.671
-0.238519 -0.0354515 0.671
-0.237068 -0.0355063 0.672
-0.23491 -0.0354554 0.671
-0.233453 -0.0355102 0.672
-0.232336 -0.0356179 0.674
-0.230524 -0.03562 0.674
-0.228711 -0.0356221 0.674
-0.226899 -0.0356243 0.674
-0.225421 -0.0356794 0.675
-0.223937 -0.0357345 0.676
-0.222777 -0.0358425 0.678
-0.220954 -0.0358448 0.678
-0.219454 -0.0359001 0.679
-0.218269 -0.0360082 0.681
-0.216756 -0.0360635 0.682
-0.215237 -0.0361189 0.683
-0.213713 -0.0361743 0.684
-0.213112 -0.0363884 0.688
-0.211876 -0.0364967 0.69
-0.210629 -0.0366051 0.692
-0.209371 -0.0367136 0.694
-0.207205 -0.0366633 0.693
-0.204748 -0.0365602 0.691
-0.202595 -0.03651 0.69
-0.201321 -0.0366186 0.692
-0.200035 -0.0367271 0.694
-0.198453 -0.0367828 0.695
-0.196865 -0.0368386 0.696
-0.195552 -0.0369473 0.698
-0.194505 -0.0371089 0.701
-0.193717 -0.0373235 0.705
-0.193179 -0.0375912 0.71
-0.192344 -0.0378059 0.714
-0.190955 -0.0379148 0.716
-0.189026 -0.0379177 0.716
-0.187097 -0.0379207 0.716
-0.184909 -0.0378707 0.715
-0.18375 -0.0380326 0.718
-0.182321 -0.0381416 0.72
-0.180882 -0.0382506 0.722
-0.179183 -0.0383066 0.723
-0.177969 -0.0384686 0.726
-0.177223 -0.0387366 0.731
-0.17621 -0.0389517 0.735
-0.175175 -0.0391668 0.739
-0.17365 -0.0392759 0.741
-0.172114 -0.039385 0.743
-0.170566 -0.0394942 0.745
-0.16946 -0.0397093 0.749
-0.168779 -0.0400306 0.755
-0.168065 -0.0403519 0.761
-0.167318 -0.0406733 0.767
-0.165677 -0.0407825 0.769
-0.164238 -0.0409448 0.772
-0.160471 -0.0405236 0.764
-0.157577 -0.0403146 0.76
-0.155522 -0.0403177 0.76
-0.153871 -0.0404269 0.762
-0.152408 -0.0405892 0.765
-0.150339 -0.0405922 0.765
-0.146912 -0.0402238 0.758
-0.144097 -0.0400146 0.754
-0.141868 -0.0399645 0.753
-0.139644 -0.0399144 0.752
-0.137791 -0.0399704 0.753
-0.135932 -0.0400264 0.754
-0.133712 -0.0399762 0.753
-0.131498 -0.039926 0.752
-0.12946 -0.0399288 0.752
-0.127931 -0.0400909 0.755
-0.126051 -0.0401468 0.756
-0.123674 -0.0400434 0.754
-0.121146 -0.0398868 0.751
-0.119109 -0.0398895 0.751
-0.117384 -0.0399984 0.753
-0.115954 -0.0402135 0.757
-0.1139 -0.0402162 0.757
-0.111255 -0.0400062 0.753
-0.109066 -0.0399557 0.752
-0.107167 -0.0400113 0.753
-0.10568 -0.0402264 0.757
-0.103488 -0.0401757 0.756
-0.101435 -0.0401781 0.756
-0.0992494 -0.0401273 0.755
-0.0973268 -0.0401828 0.756
-0.0951465 -0.040132 0.755
-0.0928479 -0.0400279 0.753
-0.0905599 -0.0399238 0.751
-0.0882824 -0.0398197 0.749
-0.0867064 -0.0400345 0.753
-0.0846586 -0.0400366 0.753
-0.08283 -0.040145 0.755
-0.0805622 -0.0400407 0.753
-0.0782007 -0.0398831 0.75
-0.0759569 -0.0397787 0.748
-0.0734271 -0.0395146 0.743
-0.0715009 -0.0395696 0.744
-0.0694756 -0.0395714 0.744
-0.0675408 -0.0396263 0.745
-0.0649846 -0.0393089 0.739
-0.062461 -0.0389913 0.733
-0.0598047 -0.0385673 0.725
-0.0579097 -0.038622 0.726
-0.0561632 -0.0387831 0.729
-0.0541028 -0.0387313 0.728
-0.0516896 -0.0384134 0.722
-0.0499288 -0.0385744 0.725
-0.0488129 -0.0392673 0.738
-0.0469917 -0.0394282 0.741
-0.0449112 -0.0393762 0.74
-0.042952 -0.0394306 0.741
-0.0411528 -0.0396445 0.745
-0.0391741 -0.0396988 0.746
-0.0371401 -0.0396998 0.746
-0.0348705 -0.0394346 0.741
-0.0328498 -0.0394355 0.741
-0.0307457 -0.0393299 0.739
-0.0287691 -0.0393839 0.74
-0.0266784 -0.0392782 0.738
-0.0247322 -0.0393854 0.74
-0.0228978 -0.0397053 0.746
-0.0209746 -0.0399188 0.75
-0.0189791 -0.0400258 0.752
-0.016905 -0.039973 0.751
-0.014777 -0.0397605 0.747
-0.0125684 -0.0392286 0.737
-0.0104859 -0.0389628 0.732
-0.0084539 -0.0388034 0.729
-0.00645596 -0.0387504 0.728
-0.00443888 -0.0384844 0.723
-0.00246613 -0.0384844 0.723
-0.000494054 -0.0385377 0.724
0.00148758 -0.0386974 0.727
0.00344737 -0.0384312 0.722
0.00538737 -0.0382181 0.718
0.00725437 -0.0377389 0.709
0.00913702 -0.0375258 0.705
0.0110292 -0.0374191 0.703
0.0129656 -0.037472 0.704
0.0149075 -0.0375248 0.705
0.0169025 -0.0376841 0.708
0.0189404 -0.0378965 0.712
0.0208534 -0.0378428 0.711
0.0227288 -0.0377357 0.709
0.024628 -0.0376819 0.708
0.0267842 -0.0380005 0.714
0.0288523 -0.0381595 0.717
0.0308937 -0.0382651 0.719
0.0327631 -0.0381578 0.717
0.0346215 -0.0380505 0.715
0.0366734 -0.038156 0.717
0.0388439 -0.0383679 0.721
0.0406963 -0.0382604 0.719
0.0424191 -0.0380465 0.715
0.0440578 -0.0377793 0.71
0.0458634 -0.0376717 0.708
0.0477255 -0.0376173 0.707
0.0495117 -0.0375096 0.705
0.0515056 -0.0375615 0.706
0.0537319 -0.037773 0.71
0.0555877 -0.0377184 0.709
0.0574379 -0.0376637 0.708
0.0591146 -0.0375026 0.705
0.0612077 -0.0376075 0.707
0.0635794 -0.0378719 0.712
0.0656099 -0.0379234 0.713
0.0673615 -0.0378154 0.711
0.0686145 -0.0374414 0.704
0.0706307 -0.0374928 0.705
0.0724463 -0.0374379 0.704
0.0744674 -0.0374892 0.705
0.076602 -0.0375937 0.707
0.0789694 -0.0378044 0.711
0.0811307 -0.0379088 0.713
0.0835356 -0.0381195 0.717
0.0857235 -0.0382237 0.719
0.0884097 -0.0385406 0.725
0.0906296 -0.0386447 0.727
0.0927327 -0.0386957 0.728
0.0935399 -0.0382151 0.719
0.095626 -0.038266 0.72
0.0966331 -0.0378917 0.713
0.0988459 -0.0379957 0.715
0.0985321 -0.0371431 0.699
0.101004 -0.0373533 0.703
0.103206 -0.0374572 0.705
0.106461 -0.037933 0.714
0.109461 -0.0383024 0.721
0.112499 -0.0386717 0.728
0.115732 -0.0390941 0.736
0.118207 -0.0392508 0.739
0.120862 -0.0394605 0.743
0.122215 -0.0392454 0.739
0.123714 -0.0390834 0.736
0.125196 -0.0389213 0.733
0.126835 -0.0388124 0.731
0.128287 -0.0386503 0.728
0.129722 -0.0384883 0.725
0.131322 -0.0383793 0.723
0.132911 -0.0382704 0.721
0.134302 -0.0381083 0.718
0.135106 -0.0377871 0.712
0.135301 -0.0373066 0.703
0.135837 -0.0369324 0.696
0.137126 -0.0367704 0.693
0.1388 -0.0367146 0.692
0.140061 -0.0365526 0.689
0.140894 -0.0362845 0.684
0.141908 -0.0360696 0.68
0.143535 -0.0360137 0.679
0.14537 -0.0360109 0.679
0.147638 -0.0361142 0.681
0.149038 -0.0360053 0.679
0.15065 -0.0359494 0.678
0.151806 -0.0357875 0.675
0.153173 -0.0356787 0.673
0.15499 -0.0356759 0.673
0.15634 -0.035567 0.671
0.157915 -0.0355112 0.67
0.158531 -0.0352434 0.665
0.159843 -0.0351346 0.663
0.161143 -0.0350258 0.661
0.162926 -0.0350231 0.661
0.164957 -0.0350733 0.662
0.166742 -0.0350705 0.662
0.168781 -0.0351207 0.663
0.169796 -0.034959 0.66
0.171574 -0.0349562 0.66
0.173353 -0.0349535 0.66
0.175131 -0.0349507 0.66
0.176372 -0.0348421 0.658
0.177603 -0.0347335 0.656
0.178823 -0.0346249 0.654
0.18086 -0.0346751 0.655
0.182623 -0.0346725 0.655
0.184949 -0.0347757 0.657
0.185865 -0.0346142 0.654
0.187912 -0.0346645 0.655
0.190254 -0.0347678 0.657
0.193191 -0.0349768 0.661
0.195264 -0.0350271 0.662
0.197045 -0.0350246 0.662
0.199427 -0.0351278 0.664
0.202728 -0.0353897 0.669
0.204528 -0.0353872 0.669
0.207252 -0.0355434 0.672
0.208126 -0.0353822 0.669
0.210239 -0.0354326 0.67
0.212041 -0.0354302 0.67
0.215119 -0.0356393 0.674
0.218541 -0.0359012 0.679
0.22134 -0.0360575 0.682
0.223174 -0.0360551 0.682
0.224018 -0.0358942 0.679
0.221852 -0.0352576 0.667
-0.273865 -0.0376308 0.678
-0.274444 -0.0379647 0.684
-0.2726 -0.0379657 0.684
-0.268777 -0.0376893 0.679
-0.266161 -0.0375794 0.677
-0.263166 -0.0374141 0.674
-0.26135 -0.0374153 0.674
-0.259535 -0.0374166 0.674
-0.258102 -0.0374735 0.675
-0.255905 -0.0374195 0.674
-0.253714 -0.0373655 0.673
-0.251528 -0.0373115 0.672
-0.250092 -0.0373687 0.673
-0.247912 -0.0373148 0.672
-0.246104 -0.0373166 0.672
-0.243569 -0.0372073 0.67
-0.241405 -0.0371536 0.669
-0.239964 -0.037211 0.67
-0.238162 -0.037213 0.67
-0.23636 -0.0372149 0.67
-0.234208 -0.0371614 0.669
-0.232409 -0.0371635 0.669
-0.230955 -0.0372212 0.67
-0.229153 -0.0372234 0.67
-0.22803 -0.0373367 0.672
-0.226223 -0.037339 0.672
-0.224751 -0.0373968 0.673
-0.223604 -0.0375103 0.675
-0.222117 -0.0375683 0.676
-0.2203 -0.0375707 0.676
-0.218482 -0.0375732 0.676
-0.217305 -0.0376868 0.678
-0.2158 -0.037745 0.679
-0.214604 -0.0378587 0.681
-0.213085 -0.0379169 0.682
-0.21218 -0.0380864 0.685
-0.210338 -0.0380891 0.685
-0.209409 -0.0382586 0.688
-0.208161 -0.0383726 0.69
-0.206604 -0.038431 0.691
-0.204449 -0.0383782 0.69
-0.202299 -0.0383254 0.689
-0.201027 -0.0384395 0.691
-0.199744 -0.0385536 0.693
-0.198164 -0.0386122 0.694
-0.196579 -0.0386708 0.695
-0.195269 -0.038785 0.697
-0.194225 -0.0389549 0.7
-0.193714 -0.0392362 0.705
-0.192904 -0.0394619 0.709
-0.192072 -0.0396876 0.713
-0.190685 -0.039802 0.715
-0.189023 -0.0398608 0.716
-0.187094 -0.0398639 0.716
-0.185165 -0.0398671 0.716
-0.183491 -0.0399259 0.717
-0.181812 -0.0399847 0.718
-0.180377 -0.0400993 0.72
-0.178932 -0.0402139 0.722
-0.17723 -0.0402727 0.723
-0.17625 -0.0404988 0.727
-0.175248 -0.0407248 0.731
-0.174698 -0.0410623 0.737
-0.173647 -0.0412885 0.741
-0.172342 -0.0414589 0.744
-0.171021 -0.0416294 0.747
-0.169457 -0.0417441 0.749
-0.168329 -0.0419703 0.753
-0.167178 -0.0421966 0.757
-0.166224 -0.0424787 0.762
-0.164597 -0.0425935 0.764
-0.163596 -0.0428756 0.769
-0.161308 -0.0428231 0.768
-0.157988 -0.0424918 0.762
-0.155928 -0.0424951 0.762
-0.15407 -0.0425541 0.763
-0.152206 -0.0426132 0.764
-0.149746 -0.0425048 0.762
-0.146134 -0.0420617 0.754
-0.143903 -0.0420091 0.753
-0.141865 -0.0420122 0.753
-0.139269 -0.0418479 0.75
-0.13669 -0.0416836 0.747
-0.134848 -0.0417424 0.748
-0.132644 -0.0416896 0.747
-0.13132 -0.0419159 0.751
-0.129457 -0.0419747 0.752
-0.127759 -0.0420893 0.754
-0.125381 -0.0419805 0.752
-0.123015 -0.0418718 0.75
-0.12082 -0.0418188 0.749
-0.119265 -0.0419891 0.752
-0.117693 -0.0421595 0.755
-0.116257 -0.0423856 0.759
-0.113596 -0.042165 0.755
-0.111252 -0.042056 0.753
-0.108628 -0.0418353 0.749
-0.106595 -0.0418379 0.749
-0.10484 -0.0419522 0.751
-0.103075 -0.0420665 0.753
-0.101298 -0.0421808 0.755
-0.098984 -0.0420715 0.753
-0.0969382 -0.042074 0.753
-0.094514 -0.0419088 0.75
-0.092599 -0.041967 0.751
-0.0905576 -0.0419693 0.751
-0.0881623 -0.041804 0.748
-0.0860134 -0.0417503 0.747
-0.0837571 -0.0416407 0.745
-0.0821697 -0.0418664 0.749
-0.0799182 -0.0417567 0.747
-0.0775731 -0.0415911 0.744
-0.0753456 -0.0414813 0.742
-0.0732276 -0.0414273 0.741
-0.071403 -0.041541 0.743
-0.0691937 -0.0414311 0.741
-0.0670857 -0.041377 0.74
-0.0645433 -0.0410432 0.734
-0.0624593 -0.040989 0.733
-0.0598856 -0.0405992 0.726
-0.0579082 -0.0406008 0.726
-0.0559306 -0.0406023 0.726
-0.0539527 -0.0406038 0.726
-0.0516167 -0.0403256 0.721
-0.0498586 -0.0404947 0.724
-0.0486793 -0.0411673 0.736
-0.0469905 -0.0414483 0.741
-0.0448493 -0.0413376 0.739
-0.0428349 -0.0413388 0.739
-0.0409308 -0.0414519 0.741
-0.039068 -0.0416208 0.744
-0.0368901 -0.041454 0.741
-0.0346814 -0.0412312 0.737
-0.0325386 -0.0410643 0.734
-0.0305369 -0.0410652 0.734
-0.0284962 -0.04101 0.733
-0.0265331 -0.0410668 0.734
-0.0244642 -0.0409556 0.732
-0.0225596 -0.0411241 0.735
-0.0206105 -0.0412366 0.737
-0.0186757 -0.041405 0.74
-0.0166119 -0.0412936 0.738
-0.014559 -0.0411821 0.736
-0.0124487 -0.0408467 0.73
-0.010414 -0.0406792 0.727
-0.00839569 -0.0405116 0.724
-0.00642031 -0.0405118 0.724
-0.00442034 -0.0402881 0.72
-0.00244901 -0.0401763 0.718
-0.000489946 -0.0401764 0.718
0.00147935 -0.0404561 0.723
0.00343773 -0.0402882 0.72
0.00534221 -0.0398404 0.712
0.00718255 -0.0392807 0.702
0.00908493 -0.0392245 0.701
0.0110289 -0.0393361 0.703
0.0128916 -0.0391679 0.7
0.0147802 -0.0391116 0.699
0.0167827 -0.039335 0.703
0.0188335 -0.0396142 0.708
0.0207942 -0.0396696 0.709
0.022632 -0.0395012 0.706
0.0245925 -0.0395565 0.707
0.0266709 -0.0397796 0.711
0.0286504 -0.0398347 0.712
0.0304203 -0.0396101 0.708
0.0321682 -0.0393855 0.704
0.0340395 -0.0393286 0.703
0.0362633 -0.0396633 0.709
0.0385734 -0.0400539 0.716
0.0405254 -0.0400528 0.716
0.0420027 -0.0396042 0.708
0.0433741 -0.0390996 0.699
0.0450201 -0.0388746 0.695
0.0471842 -0.0390971 0.699
0.0489486 -0.0389839 0.697
0.0511395 -0.0392063 0.701
0.0531251 -0.0392608 0.702
0.054959 -0.0392034 0.701
0.0568685 -0.0392019 0.701
0.0589454 -0.0393122 0.703
0.0612927 -0.0395902 0.708
0.0633991 -0.0397004 0.71
0.0647801 -0.0393632 0.704
0.0664123 -0.0391937 0.701
0.068028 -0.0390242 0.698
0.0703284 -0.039246 0.702
0.071827 -0.0390205 0.698
0.074043 -0.0391863 0.701
0.0758417 -0.0391285 0.7
0.0785232 -0.0395178 0.707
0.079877 -0.0392363 0.702
0.0821354 -0.0394019 0.705
0.0842906 -0.0395115 0.707
0.087432 -0.0400682 0.717
0.0898794 -0.0402894 0.721
0.0923483 -0.0405107 0.725
0.0934075 -0.0401172 0.718
0.0954909 -0.0401707 0.719
0.095682 -0.039442 0.706
0.0978758 -0.0395514 0.708
0.0995164 -0.0394372 0.706
0.10172 -0.0395465 0.708
0.103642 -0.039544 0.708
0.105713 -0.0395973 0.709
0.108851 -0.0400415 0.717
0.110951 -0.0400947 0.718
0.114314 -0.0405946 0.727
0.116925 -0.0408152 0.731
0.119883 -0.0411474 0.737
0.121716 -0.0410888 0.736
0.123375 -0.0409743 0.734
0.124852 -0.0408039 0.731
0.126485 -0.0406894 0.729
0.128284 -0.0406307 0.728
0.12954 -0.0404046 0.724
0.130956 -0.0402342 0.721
0.132355 -0.0400639 0.718
0.133364 -0.039782 0.713
0.133965 -0.0393885 0.706
0.134336 -0.0389392 0.698
0.135053 -0.0386016 0.692
0.136134 -0.0383756 0.688
0.137594 -0.0382611 0.686
0.139449 -0.0382582 0.686
0.140685 -0.038088 0.683
0.142114 -0.0379735 0.681
0.143532 -0.0378591 0.679
0.145153 -0.0378004 0.678
0.146768 -0.0377417 0.677
0.148377 -0.037683 0.676
0.14998 -0.0376243 0.675
0.151353 -0.0375099 0.673
0.152715 -0.0373955 0.671
0.154526 -0.0373925 0.671
0.155638 -0.0372224 0.668
0.156734 -0.0370523 0.665
0.157336 -0.0367708 0.66
0.158634 -0.0366565 0.658
0.160165 -0.0365978 0.657
0.16169 -0.0365392 0.656
0.163958 -0.0366477 0.658
0.165983 -0.0367005 0.659
0.168014 -0.0367533 0.66
0.168764 -0.0365277 0.656
0.170532 -0.0365248 0.656
0.172299 -0.0365219 0.656
0.173801 -0.0364634 0.655
0.175565 -0.0364606 0.655
0.177329 -0.0364577 0.655
0.178546 -0.0363436 0.653
0.180305 -0.0363408 0.653
0.181784 -0.0362823 0.652
0.183821 -0.0363352 0.653
0.185294 -0.0362768 0.652
0.186762 -0.0362184 0.651
0.189093 -0.036327 0.653
0.191435 -0.0364355 0.655
0.192902 -0.0363772 0.654
0.194661 -0.0363745 0.654
0.197022 -0.0364831 0.656
0.200604 -0.0368141 0.662
0.202996 -0.0369227 0.664
0.205708 -0.0370869 0.667
0.207501 -0.0370843 0.667
0.209923 -0.0371929 0.669
0.211722 -0.0371903 0.669
0.214159 -0.037299 0.671
0.217251 -0.0375188 0.675
0.221013 -0.0378498 0.681
0.224153 -0.0380697 0.685
0.226655 -0.0381784 0.687
0.226839 -0.0378981 0.682
-0.273056 -0.0393492 0.676
-0.272437 -0.0395248 0.679
-0.270208 -0.0394676 0.678
-0.267193 -0.039294 0.675
-0.265374 -0.0392952 0.675
-0.263165 -0.0392382 0.674
-0.260961 -0.0391813 0.673
-0.259149 -0.0391827 0.673
-0.257719 -0.0392424 0.674
-0.255524 -0.0391857 0.673
-0.25409 -0.0392455 0.674
-0.251527 -0.0391306 0.672
-0.249718 -0.0391323 0.672
-0.247541 -0.0390758 0.671
-0.245369 -0.0390194 0.67
-0.243567 -0.0390213 0.67
-0.241404 -0.038965 0.669
-0.24032 -0.0390834 0.671
-0.238871 -0.0391437 0.672
-0.236358 -0.0390293 0.67
-0.233856 -0.0389149 0.668
-0.231712 -0.0388588 0.667
-0.230263 -0.0389193 0.668
-0.228467 -0.0389215 0.668
-0.227349 -0.0390404 0.67
-0.225884 -0.039101 0.671
-0.224414 -0.0391617 0.672
-0.22327 -0.0392807 0.674
-0.221458 -0.0392832 0.674
-0.219971 -0.039344 0.675
-0.218156 -0.0393466 0.675
-0.217303 -0.039524 0.678
-0.215797 -0.039585 0.679
-0.213971 -0.0395877 0.679
-0.212145 -0.0395904 0.679
-0.210939 -0.0397098 0.681
-0.209414 -0.0397709 0.682
-0.208188 -0.0398904 0.684
-0.207254 -0.0400682 0.687
-0.206302 -0.0402461 0.69
-0.204446 -0.040249 0.69
-0.20259 -0.040252 0.69
-0.201024 -0.0403133 0.691
-0.199453 -0.0403746 0.692
-0.19759 -0.0403777 0.692
-0.196293 -0.0404974 0.694
-0.194986 -0.0406172 0.696
-0.193944 -0.0407954 0.699
-0.192887 -0.0409737 0.702
-0.191812 -0.0411519 0.705
-0.190991 -0.0413886 0.709
-0.190148 -0.0416254 0.713
-0.18902 -0.0418038 0.716
-0.187352 -0.0418654 0.717
-0.184903 -0.0417519 0.715
-0.183232 -0.0418136 0.716
-0.181555 -0.0418753 0.717
-0.180124 -0.0419954 0.719
-0.178929 -0.042174 0.722
-0.177227 -0.0422357 0.723
-0.175762 -0.0423559 0.725
-0.174765 -0.042593 0.729
-0.173984 -0.0428885 0.734
-0.173644 -0.0433009 0.741
-0.172339 -0.0434797 0.744
-0.17056 -0.0435415 0.745
-0.169001 -0.0436619 0.747
-0.167655 -0.0438407 0.75
-0.166513 -0.0440779 0.754
-0.165349 -0.0443152 0.758
-0.163947 -0.0444941 0.761
-0.162742 -0.0447314 0.765
-0.161305 -0.0449103 0.768
-0.158814 -0.0447968 0.766
-0.156539 -0.0447418 0.765
-0.15447 -0.0447452 0.765
-0.152401 -0.0447486 0.765
-0.14935 -0.0444595 0.76
-0.146131 -0.0441118 0.754
-0.144282 -0.0441736 0.755
-0.142238 -0.0441768 0.755
-0.139638 -0.0440045 0.752
-0.13687 -0.0437737 0.748
-0.134664 -0.0437183 0.747
-0.132641 -0.0437215 0.747
-0.130967 -0.0438417 0.749
-0.12911 -0.0439033 0.75
-0.126739 -0.0437893 0.748
-0.124712 -0.0437924 0.748
-0.122684 -0.0437954 0.748
-0.120817 -0.0438569 0.749
-0.119262 -0.0440355 0.752
-0.117378 -0.044097 0.753
-0.115795 -0.0442756 0.756
-0.113142 -0.0440442 0.752
-0.110658 -0.0438714 0.749
-0.108335 -0.043757 0.747
-0.106165 -0.0437011 0.746
-0.104558 -0.0438796 0.749
-0.102661 -0.0439409 0.75
-0.101027 -0.0441193 0.753
-0.0988501 -0.0440633 0.752
-0.0965495 -0.0439487 0.75
-0.0942596 -0.043834 0.748
-0.09235 -0.043895 0.749
-0.0905553 -0.0440147 0.751
-0.0878065 -0.0436654 0.745
-0.0855505 -0.0435505 0.743
-0.0833052 -0.0434356 0.741
-0.0819481 -0.0437895 0.747
-0.0795952 -0.0436158 0.744
-0.0773626 -0.0435007 0.742
-0.075039 -0.0433269 0.739
-0.0728303 -0.0432117 0.737
-0.0708245 -0.0432137 0.737
-0.0686316 -0.0430983 0.735
-0.0666306 -0.0431002 0.735
-0.0641898 -0.0428088 0.73
-0.0621168 -0.0427519 0.729
-0.0594716 -0.0422845 0.721
-0.0575078 -0.0422861 0.721
-0.055775 -0.0424637 0.724
-0.0539512 -0.0425825 0.726
-0.0514721 -0.0421734 0.719
-0.0494441 -0.0421162 0.718
-0.0481488 -0.0427042 0.728
-0.0466721 -0.0431748 0.736
-0.044666 -0.0431761 0.736
-0.0426598 -0.0431774 0.736
-0.0407087 -0.0432372 0.737
-0.0388044 -0.0433557 0.739
-0.0366402 -0.0431808 0.736
-0.0345392 -0.0430645 0.734
-0.032449 -0.0429481 0.732
-0.0305776 -0.043125 0.735
-0.0285342 -0.0430672 0.734
-0.0265323 -0.043068 0.734
-0.0243298 -0.0427167 0.728
-0.0223748 -0.0427761 0.729
-0.0203583 -0.042718 0.728
-0.0184733 -0.0429533 0.732
-0.0164764 -0.0429538 0.732
-0.0144992 -0.0430129 0.733
-0.012363 -0.0425439 0.725
-0.0103134 -0.0422508 0.72
-0.00834907 -0.0422511 0.72
-0.00641126 -0.0424273 0.723
-0.00442636 -0.0423101 0.721
-0.00244212 -0.0420168 0.716
-0.000487885 -0.0419582 0.715
0.00146703 -0.0420755 0.717
0.00340898 -0.0418994 0.714
0.00529704 -0.0414298 0.706
0.00713118 -0.0409015 0.697
0.00901987 -0.0408426 0.696
0.0110286 -0.0412531 0.703
0.0128728 -0.041018 0.699
0.0147798 -0.0410176 0.699
0.0167344 -0.0411345 0.701
0.0187531 -0.0413687 0.705
0.0207643 -0.0415441 0.708
0.0225993 -0.0413675 0.705
0.0245571 -0.0414255 0.706
0.0264451 -0.041366 0.705
0.0282874 -0.0412479 0.703
0.0300327 -0.0410124 0.699
0.0318932 -0.0409528 0.698
0.0338933 -0.0410692 0.7
0.0360065 -0.0413029 0.704
0.0380875 -0.0414778 0.707
0.0400149 -0.0414767 0.707
0.0415269 -0.0410648 0.7
0.0429385 -0.0405943 0.692
0.0445007 -0.0402998 0.687
0.0467779 -0.0406504 0.693
0.0487365 -0.0407077 0.694
0.0512111 -0.0411756 0.702
0.0530479 -0.0411154 0.701
0.0549575 -0.0411139 0.701
0.0567858 -0.0410537 0.7
0.0588599 -0.0411694 0.702
0.0610313 -0.0413436 0.705
0.0628617 -0.0412832 0.704
0.0638582 -0.0406951 0.694
0.0656526 -0.0406347 0.693
0.067344 -0.0405156 0.691
0.0699258 -0.0409241 0.698
0.0716193 -0.0408049 0.696
0.0737242 -0.0409202 0.698
0.0751896 -0.0406836 0.694
0.0772994 -0.0407988 0.696
0.0788509 -0.0406209 0.693
0.0815508 -0.041029 0.7
0.0838116 -0.0412026 0.703
0.0864542 -0.041552 0.709
0.0888798 -0.0417841 0.713
0.0909448 -0.0418403 0.714
0.0928848 -0.0418379 0.714
0.094426 -0.0416597 0.711
0.095002 -0.0410713 0.701
0.0967675 -0.0410102 0.7
0.0986682 -0.0410077 0.7
0.10258 -0.0418253 0.714
0.103786 -0.0415297 0.709
0.10571 -0.0415271 0.709
0.108241 -0.0417587 0.713
0.11033 -0.0418145 0.714
0.11321 -0.0421631 0.72
0.117082 -0.0428629 0.732
0.11988 -0.0431528 0.737
0.121878 -0.0431498 0.737
0.123708 -0.0430883 0.736
0.12519 -0.0429097 0.733
0.126482 -0.0426725 0.729
0.127752 -0.0424354 0.725
0.129179 -0.0422567 0.722
0.13059 -0.0420781 0.719
0.13143 -0.0417239 0.713
0.131864 -0.0412527 0.705
0.132634 -0.0408986 0.699
0.133371 -0.0405446 0.693
0.13427 -0.040249 0.688
0.135339 -0.040012 0.684
0.137189 -0.040009 0.684
0.139039 -0.0400059 0.684
0.140888 -0.0400029 0.684
0.14232 -0.0398828 0.682
0.14374 -0.0397628 0.68
0.144721 -0.0395258 0.676
0.146331 -0.0394643 0.675
0.148374 -0.0395197 0.676
0.149755 -0.0393997 0.674
0.1509 -0.0392212 0.671
0.151802 -0.0389844 0.667
0.153372 -0.0389228 0.666
0.154703 -0.0388029 0.664
0.155788 -0.0386245 0.661
0.156618 -0.0383878 0.657
0.15839 -0.0383847 0.657
0.159918 -0.0383233 0.656
0.161688 -0.0383203 0.656
0.163705 -0.0383756 0.657
0.165225 -0.0383142 0.656
0.166993 -0.0383112 0.656
0.168246 -0.0381914 0.654
0.170009 -0.0381884 0.654
0.171771 -0.0381854 0.654
0.173002 -0.0380656 0.652
0.17449 -0.0380043 0.651
0.176244 -0.0380013 0.651
0.177997 -0.0379984 0.651
0.180026 -0.0380538 0.652
0.181502 -0.0379926 0.651
0.183818 -0.0381064 0.653
0.185291 -0.0380451 0.652
0.186759 -0.0379839 0.651
0.188511 -0.0379811 0.651
0.190555 -0.0380366 0.652
0.192014 -0.0379755 0.651
0.192873 -0.0377977 0.648
0.194917 -0.0378533 0.649
0.19848 -0.0382005 0.655
0.201159 -0.0383727 0.658
0.204163 -0.0386032 0.662
0.206254 -0.0386588 0.663
0.208665 -0.0387728 0.665
0.21077 -0.0388284 0.666
0.21288 -0.0388841 0.667
0.215639 -0.0390564 0.67
0.218739 -0.039287 0.674
0.222514 -0.0396341 0.68
0.226652 -0.0400396 0.687
0.2285 -0.0400371 0.687
-0.26634 -0.0398985 0.655
-0.271036 -0.040874 0.671
-0.270029 -0.0409968 0.673
-0.268214 -0.0409978 0.673
-0.265608 -0.0408771 0.671
-0.264586 -0.0410002 0.673
-0.262773 -0.0410015 0.673
-0.26096 -0.0410028 0.673
-0.258762 -0.0409433 0.672
-0.256952 -0.0409448 0.672
-0.255143 -0.0409464 0.672
-0.253334 -0.040948 0.672
-0.251151 -0.0408888 0.671
-0.249345 -0.0408905 0.671
-0.24717 -0.0408314 0.67
-0.245001 -0.0407724 0.669
-0.243201 -0.0407743 0.669
-0.241762 -0.0408372 0.67
-0.23996 -0.0408393 0.67
-0.238158 -0.0408414 0.67
-0.23565 -0.0407216 0.668
-0.233154 -0.0406019 0.666
-0.231363 -0.0406042 0.666
-0.230261 -0.0407284 0.668
-0.228465 -0.0407308 0.668
-0.227008 -0.0407941 0.669
-0.225209 -0.0407966 0.669
-0.224412 -0.040982 0.672
-0.223267 -0.0411065 0.674
-0.221126 -0.0410482 0.673
-0.219643 -0.0411118 0.674
-0.218153 -0.0411755 0.675
-0.216659 -0.0412392 0.676
-0.215159 -0.0413029 0.677
-0.213338 -0.0413057 0.677
-0.21183 -0.0413696 0.678
-0.210007 -0.0413725 0.678
-0.20849 -0.0414364 0.679
-0.206968 -0.0415003 0.68
-0.206044 -0.0416864 0.683
-0.205403 -0.0419336 0.687
-0.204147 -0.0420587 0.689
-0.20288 -0.0421839 0.691
-0.201021 -0.042187 0.691
-0.199738 -0.0423122 0.693
-0.197873 -0.0423154 0.693
-0.19629 -0.0423797 0.694
-0.194982 -0.042505 0.696
-0.193664 -0.0426304 0.698
-0.192334 -0.0427558 0.7
-0.191265 -0.0429424 0.703
-0.19018 -0.043129 0.706
-0.189345 -0.0433767 0.71
-0.188489 -0.0436244 0.714
-0.187087 -0.0437501 0.716
-0.185158 -0.0437535 0.716
-0.183229 -0.0437569 0.716
-0.181552 -0.0438215 0.717
-0.17987 -0.043886 0.718
-0.178677 -0.0440729 0.721
-0.176978 -0.0441375 0.722
-0.175516 -0.0442632 0.724
-0.174522 -0.0445113 0.728
-0.173506 -0.0447594 0.732
-0.172703 -0.0450687 0.737
-0.17164 -0.0453168 0.741
-0.170327 -0.0455039 0.744
-0.168997 -0.045691 0.747
-0.167427 -0.0458169 0.749
-0.166067 -0.046004 0.752
-0.164909 -0.0462523 0.756
-0.163513 -0.0464394 0.759
-0.1621 -0.0466266 0.762
-0.161301 -0.0469974 0.768
-0.160469 -0.0473682 0.774
-0.158786 -0.0474942 0.776
-0.155476 -0.0471306 0.77
-0.152199 -0.0467668 0.764
-0.148953 -0.0464031 0.758
-0.146127 -0.0461617 0.754
-0.144087 -0.0461651 0.754
-0.142047 -0.0461685 0.754
-0.140006 -0.0461719 0.754
-0.137416 -0.0459915 0.751
-0.135021 -0.0458724 0.749
-0.132815 -0.0458144 0.748
-0.13044 -0.0456952 0.746
-0.128418 -0.0456984 0.746
-0.126397 -0.0457016 0.746
-0.124542 -0.0457661 0.747
-0.122681 -0.0458305 0.748
-0.120492 -0.0457723 0.747
-0.118466 -0.0457754 0.747
-0.116908 -0.0459623 0.75
-0.115179 -0.0460879 0.752
-0.112838 -0.0459683 0.75
-0.109917 -0.0456035 0.744
-0.107462 -0.0454225 0.741
-0.105451 -0.0454253 0.741
-0.104277 -0.0457959 0.747
-0.102385 -0.04586 0.748
-0.100756 -0.0460467 0.751
-0.0984531 -0.0459268 0.749
-0.0964182 -0.0459295 0.749
-0.094257 -0.0458708 0.748
-0.0922242 -0.0458734 0.748
-0.0903116 -0.0459372 0.749
-0.0874505 -0.0455104 0.742
-0.0853179 -0.0454514 0.741
-0.0830781 -0.0453311 0.739
-0.081507 -0.0455788 0.743
-0.079165 -0.0453971 0.74
-0.0768391 -0.0452152 0.737
-0.0745292 -0.0450333 0.734
-0.0725318 -0.0450355 0.734
-0.0705342 -0.0450375 0.734
-0.0680694 -0.0447327 0.729
-0.0660848 -0.0447347 0.729
-0.0639242 -0.0446138 0.727
-0.0622002 -0.0447998 0.73
-0.0594699 -0.0442492 0.721
-0.0574264 -0.0441895 0.72
-0.0554652 -0.0441912 0.72
-0.053801 -0.0444383 0.724
-0.0512558 -0.0439488 0.716
-0.0493738 -0.0440117 0.717
-0.0478829 -0.0444428 0.724
-0.0463536 -0.0448739 0.731
-0.044422 -0.0449367 0.732
-0.0424267 -0.044938 0.732
-0.0403208 -0.0448164 0.73
-0.0384882 -0.0450018 0.733
-0.0364898 -0.0450029 0.733
-0.0345382 -0.0450654 0.734
-0.032581 -0.0451278 0.735
-0.0305351 -0.0450674 0.734
-0.0284945 -0.0450069 0.733
-0.0263508 -0.0447621 0.729
-0.0242957 -0.0446401 0.727
-0.022282 -0.0445794 0.726
-0.0202178 -0.0443958 0.723
-0.0183213 -0.0445806 0.726
-0.0163859 -0.0447039 0.728
-0.0143999 -0.0447044 0.728
-0.0123286 -0.0443978 0.723
-0.0102988 -0.0441525 0.719
-0.00836041 -0.0442756 0.721
-0.00641107 -0.0443986 0.723
-0.00442009 -0.0442146 0.72
-0.0024284 -0.0437234 0.712
-0.000482412 -0.0434164 0.707
0.00144857 -0.0434778 0.708
0.00337069 -0.0433549 0.706
0.00523686 -0.0428635 0.698
0.00704912 -0.0423106 0.689
0.00892888 -0.0423104 0.689
0.0109341 -0.0428014 0.697
0.0128172 -0.0427396 0.696
0.0146736 -0.0426163 0.694
0.0165907 -0.0426773 0.695
0.0185132 -0.0427382 0.696
0.0205583 -0.0430446 0.701
0.0224704 -0.0430439 0.701
0.0244868 -0.0432274 0.704
0.0263693 -0.0431653 0.703
0.0280451 -0.042796 0.697
0.0297311 -0.0424881 0.692
0.0316638 -0.0425486 0.693
0.0336986 -0.0427318 0.696
0.0357497 -0.042915 0.699
0.0375477 -0.0427911 0.697
0.0396176 -0.0429741 0.7
0.0413477 -0.0427887 0.697
0.0431234 -0.0426647 0.695
0.0445641 -0.0422336 0.688
0.046709 -0.0424778 0.692
0.0485947 -0.0424764 0.692
0.0508448 -0.0427819 0.697
0.0523653 -0.0424734 0.692
0.0546424 -0.0427787 0.697
0.0564597 -0.0427157 0.696
0.0585229 -0.0428368 0.698
0.0603371 -0.0427737 0.697
0.062592 -0.0430174 0.701
0.0636723 -0.0424633 0.692
0.0653666 -0.0423387 0.69
0.0669522 -0.0421527 0.687
0.0696233 -0.0426416 0.695
0.0714115 -0.0425782 0.694
0.0735109 -0.0426988 0.696
0.0746458 -0.0422673 0.689
0.076853 -0.0424492 0.692
0.0788487 -0.0425083 0.693
0.0817815 -0.0430581 0.702
0.0839285 -0.0431785 0.704
0.0854764 -0.0429921 0.701
0.0871323 -0.0428671 0.699
0.0892865 -0.0429873 0.701
0.0919717 -0.0433527 0.707
0.0938923 -0.0433502 0.707
0.0947284 -0.0428571 0.699
0.0964884 -0.0427932 0.698
0.0989475 -0.0430358 0.702
0.102146 -0.0435849 0.711
0.104369 -0.0437047 0.713
0.105409 -0.0433342 0.707
0.107024 -0.0432088 0.705
0.109246 -0.0433285 0.707
0.113207 -0.0441223 0.72
0.117559 -0.0450385 0.735
0.119877 -0.045158 0.737
0.122041 -0.0452162 0.738
0.123705 -0.0450906 0.736
0.125529 -0.0450262 0.735
0.126653 -0.0447167 0.73
0.127573 -0.044346 0.724
0.128639 -0.0440366 0.719
0.129678 -0.0437272 0.714
0.130137 -0.0432342 0.706
0.130552 -0.0427411 0.698
0.131492 -0.0424318 0.693
0.132598 -0.0421838 0.689
0.133681 -0.0419357 0.685
0.135139 -0.0418102 0.683
0.136785 -0.0417458 0.682
0.138629 -0.0417426 0.682
0.140679 -0.0418006 0.683
0.142317 -0.0417362 0.682
0.143314 -0.0414883 0.678
0.14429 -0.0412403 0.674
0.145678 -0.0411147 0.672
0.147932 -0.0412339 0.674
0.14953 -0.0411695 0.673
-0.255141 -0.0427653 0.672
-0.253332 -0.042767 0.672
-0.250775 -0.0426415 0.67
-0.2486 -0.0425797 0.669
-0.246799 -0.0425815 0.669
-0.244633 -0.0425198 0.668
-0.242472 -0.0424582 0.667
-0.240317 -0.0423966 0.666
-0.238167 -0.042335 0.665
-0.236734 -0.0424009 0.666
-0.235648 -0.0425304 0.668
-0.234552 -0.0426601 0.67
-0.233097 -0.0427261 0.671
-0.230948 -0.0426648 0.67
-0.228804 -0.0426036 0.669
-0.227005 -0.0426061 0.669
-0.225206 -0.0426086 0.669
-0.224075 -0.0427386 0.671
-0.222602 -0.042805 0.672
-0.221452 -0.0429351 0.674
-0.219966 -0.0430015 0.675
-0.218474 -0.043068 0.676
-0.216656 -0.0430708 0.676
-0.214838 -0.0430737 0.676
-0.213335 -0.0431403 0.677
-0.211827 -0.043207 0.678
-0.210623 -0.0433374 0.68
-0.208794 -0.0433405 0.68
-0.207574 -0.043471 0.682
-0.206041 -0.0435378 0.683
-0.2051 -0.0437322 0.686
-0.203847 -0.0438629 0.688
-0.20229 -0.0439298 0.689
-0.201309 -0.0441244 0.692
-0.199735 -0.0441914 0.693
-0.198726 -0.044386 0.696
-0.197136 -0.0444531 0.697
-0.195259 -0.0444565 0.697
-0.193383 -0.0444599 0.697
-0.192056 -0.0445908 0.699
-0.19099 -0.0447857 0.702
-0.190177 -0.0450443 0.706
-0.189342 -0.045303 0.71
-0.188485 -0.0455618 0.714
-0.187345 -0.0457568 0.717
-0.18593 -0.045888 0.719
-0.183737 -0.0458278 0.718
-0.181802 -0.0458313 0.718
-0.179866 -0.0458349 0.718
-0.178674 -0.0460301 0.721
-0.17722 -0.0461614 0.723
-0.175755 -0.0462927 0.725
-0.174518 -0.0464879 0.728
-0.173029 -0.0466193 0.73
-0.171996 -0.0468784 0.734
-0.171173 -0.0472015 0.739
-0.170095 -0.0474607 0.743
-0.168994 -0.0477199 0.747
-0.167647 -0.0479153 0.75
-0.166505 -0.0481746 0.754
-0.164905 -0.0483061 0.756
-0.163724 -0.0485655 0.76
-0.162096 -0.048697 0.762
-0.160667 -0.0488925 0.765
-0.159429 -0.0491519 0.769
-0.15735 -0.0491557 0.769
-0.154463 -0.0489037 0.765
-0.151 -0.0484599 0.758
-0.148164 -0.0482078 0.754
-0.146124 -0.0482114 0.754
-0.14351 -0.0480231 0.751
-0.141478 -0.0480267 0.751
-0.139445 -0.0480302 0.751
-0.137595 -0.0480977 0.752
-0.135559 -0.0481011 0.752
-0.1337 -0.0481686 0.753
-0.131136 -0.0479801 0.75
-0.128243 -0.0476635 0.745
-0.125716 -0.0474749 0.742
-0.124038 -0.0476062 0.744
-0.122022 -0.0476094 0.744
-0.120327 -0.0477407 0.746
-0.118146 -0.0476799 0.745
-0.116281 -0.047747 0.746
-0.114104 -0.0476862 0.745
-0.112083 -0.0476893 0.745
-0.109766 -0.0475643 0.743
-0.107604 -0.0475033 0.742
-0.105875 -0.0476343 0.744
-0.103855 -0.0476372 0.744
-0.101972 -0.0477041 0.745
-0.100351 -0.0478991 0.748
-0.098056 -0.0477738 0.746
-0.0960293 -0.0477766 0.746
-0.0937503 -0.0476512 0.744
-0.0918517 -0.0477179 0.745
-0.0898268 -0.0477206 0.745
-0.0878016 -0.0477232 0.745
-0.0858912 -0.0477897 0.746
-0.0831881 -0.0474078 0.74
-0.0811756 -0.0474103 0.74
-0.0786278 -0.0470923 0.735
-0.0771496 -0.0474149 0.74
-0.0746286 -0.0470968 0.735
-0.0724309 -0.0469709 0.733
-0.0702438 -0.0468448 0.731
-0.0682541 -0.0468469 0.731
-0.0661735 -0.0467849 0.73
-0.0641861 -0.0467868 0.73
-0.0617723 -0.0464683 0.725
-0.0588907 -0.0457651 0.714
-0.0555903 -0.0446772 0.697
-0.054231 -0.0451275 0.704
-0.0529077 -0.045642 0.712
-0.0507532 -0.0454513 0.709
-0.0488902 -0.0455169 0.71
-0.0472862 -0.045839 0.715
-0.0457181 -0.0462251 0.721
-0.043571 -0.0460341 0.718
-0.0419618 -0.0464202 0.724
-0.0403748 -0.0468703 0.731
-0.0386446 -0.0471921 0.736
-0.0365384 -0.047065 0.734
-0.0344901 -0.047002 0.733
-0.0325357 -0.0470672 0.734
-0.0305342 -0.0470682 0.734
-0.0285714 -0.0471333 0.735
-0.0264584 -0.0469418 0.732
-0.0243618 -0.0467502 0.729
-0.0221586 -0.046302 0.722
-0.0200774 -0.0460462 0.718
-0.0180179 -0.0457902 0.714
-0.0160477 -0.0457266 0.713
-0.0141423 -0.0458554 0.715
-0.0122429 -0.0460482 0.718
-0.0102842 -0.0460486 0.718
-0.00827898 -0.0457923 0.714
-0.00628673 -0.0454719 0.709
-0.00432786 -0.0452155 0.705
-0.00240786 -0.0452797 0.706
-0.000479667 -0.0450874 0.703
0.00143421 -0.0449591 0.701
0.00328942 -0.0441894 0.689
0.00513916 -0.0439327 0.685
0.00700798 -0.0439325 0.685
0.00894157 -0.0442529 0.69
0.0108083 -0.0441885 0.689
0.0126511 -0.0440599 0.687
0.0145886 -0.0442518 0.69
0.0166379 -0.0447003 0.697
0.0185658 -0.0447638 0.698
0.0203818 -0.0445708 0.695
0.0222133 -0.0444419 0.693
0.0240686 -0.044377 0.692
0.0261059 -0.0446327 0.696
0.028004 -0.0446319 0.696
0.0301168 -0.0449516 0.701
0.0318456 -0.0446941 0.697
0.033746 -0.0446931 0.697
0.0354418 -0.0444355 0.693
0.0374388 -0.0445626 0.695
0.0390504 -0.0442408 0.69
0.0409312 -0.0442396 0.69
0.0428739 -0.0443024 0.691
0.0450162 -0.0445575 0.695
0.0468426 -0.0444919 0.694
0.0490847 -0.044811 0.699
0.0505515 -0.0444248 0.693
0.0524394 -0.0444232 0.693
0.0537784 -0.0439729 0.686
0.0556468 -0.0439712 0.686
0.0579343 -0.04429 0.691
0.0605084 -0.0448009 0.699
0.062858 -0.0451195 0.704
0.0640385 -0.0446049 0.696
0.0656489 -0.0444107 0.693
0.0667554 -0.043896 0.685
0.0685193 -0.0438299 0.684
0.0708949 -0.0441482 0.689
0.0729807 -0.0442742 0.691
0.0751854 -0.0444642 0.694
0.0766287 -0.0442057 0.69
0.0788464 -0.0443957 0.693
0.0803813 -0.0442011 0.69
0.0826147 -0.0443909 0.693
0.0847424 -0.0445166 0.695
0.0870052 -0.0447063 0.698
0.0897935 -0.0451521 0.705
0.0928797 -0.0457259 0.714
0.0944209 -0.0455311 0.711
0.0954034 -0.0450802 0.704
0.0970387 -0.0449494 0.702
0.100495 -0.0456509 0.713
0.102574 -0.0457121 0.714
0.10422 -0.0455812 0.712
0.105257 -0.0451942 0.706
0.107932 -0.0455114 0.711
0.111715 -0.0462765 0.723
0.115406 -0.0469774 0.734
0.118036 -0.0472303 0.738
0.1202 -0.0472911 0.739
0.122534 -0.0474159 0.741
0.124374 -0.0473486 0.74
0.126038 -0.0472174 0.738
0.126823 -0.0467662 0.731
0.127746 -0.0463791 0.725
0.128457 -0.045928 0.718
0.12913 -0.045477 0.711
0.129949 -0.0450899 0.705
0.130175 -0.0445111 0.696
0.13073 -0.0440601 0.689
0.132017 -0.0438651 0.686
0.133483 -0.0437339 0.684
0.134937 -0.0436028 0.682
0.136581 -0.0435355 0.681
0.13822 -0.0434683 0.68
0.140264 -0.0435289 0.681
0.141687 -0.0433978 0.679
0.143311 -0.0433305 0.678
0.144501 -0.0431355 0.675
0.145891 -0.0430044 0.673
0.147489 -0.0429371 0.672
0.149304 -0.0429338 0.672
0.150669 -0.0428027 0.67
0.151795 -0.0426077 0.667
0.152444 -0.042285 0.662
0.153532 -0.04209 0.659
0.154603 -0.0418951 0.656
0.155896 -0.0417641 0.654
0.157179 -0.0416331 0.652
